-1.413052983679336405e+00 -3.157391218068369976e-01 1.430929149229310138e+00
-8.343745591993632083e-01 2.458159534769740695e+00 -1.159327784317006893e+00
2.135601061486088081e+00 -7.337262324862162677e-01 1.506212246951805334e+00
8.238916983152592133e-01 -1.350928952620411572e+00 1.903412391991810448e+00
-3.479184324076702306e-01 -1.351610710805137172e+00 9.191700106661956360e-01
-1.613995698273041457e+00 9.874780270606948740e-01 1.298864765273743060e+00
-7.248163129317002351e-01 -7.590071906436294258e-01 -1.028393459652478414e+00
5.248739168216998152e-01 1.792620870136111266e+00 -1.278250648998311423e+00
-6.607989898107045068e-01 -1.215764660008235465e+00 -3.346314786731900415e-01
6.947480704001326446e-01 3.948267312934372608e-01 1.026305158575548493e+00
-1.513959665052036607e+00 8.911834032461418698e-02 6.883806400409073767e-01
-5.093383001630055196e-01 4.641185093269404871e-01 2.058358591520028202e+00
5.437204113824718466e-01 2.218288149096361295e-01 8.405602550634809766e-01
-3.878025314434039306e-01 -8.649646761204166090e-01 1.684741919761691298e+00
-7.135804547670919762e-01 2.162299215055622781e-01 -9.985094431693836148e-01
9.742154708284822551e-01 7.950560422531605109e-01 -4.219974821458862269e-01
-1.431747821361831097e+00 -1.682717954192450849e-01 1.317640043092265456e+00
2.784697829148413462e+00 6.613800346123135387e-01 2.891264532377722518e-01
7.962565693220260421e-01 1.532124229519812586e-01 1.907397267701713972e-01
-9.523512067916654056e-01 -1.004377166943102084e+00 -5.238737060704291570e-01
-3.126375859394237566e-01 3.683195163666605487e-01 -2.045279310794493099e+00
-4.109702344577812472e-01 -7.066743222538907077e-01 1.065635092392246186e+00
-6.472066133375030672e-01 1.144084226287616080e+00 9.769097315986610686e-02
6.407987075055424642e-01 -8.893794684740108369e-01 -2.809792445242255132e-01
1.675760771346016975e+00 2.272224981409033118e-01 1.611010669452180855e+00
6.888298844378824004e-01 -8.178178027740905520e-01 -6.697078123633357638e-01
7.967844862818025398e-01 9.352669918572552588e-01 1.324682265262826730e+00
3.882941435954361253e-01 -1.382259941787525204e+00 2.176102680039171747e-02
-1.251258664114231811e+00 -1.038264412292757427e-01 7.251942280888175052e-01
5.798396223636572699e-01 -1.894876361391333530e+00 -3.435351312382711741e-01
5.465780163777632372e-02 -4.158098001091512994e-03 4.193395372445286873e-02
1.028985909561807022e-01 1.588288509207755217e+00 -8.678801068623448467e-01
1.144047614436830340e+00 2.991902517606313539e-01 -8.055220674919358337e-02
1.476863617431176945e-01 -1.084616117353731868e+00 -7.082310651388976641e-01
4.711634148716499215e-01 6.880731493608467364e-01 8.412390210810800628e-01
-2.191118640745205182e-01 -4.928150400937422182e-01 2.788304110225648391e-01
1.039240619106170049e+00 1.239978239188276099e+00 -4.893383041455490190e-01
-1.591287906502900418e+00 -1.822479898028668055e+00 -3.095350977220906463e-01
1.913507436409440376e-01 6.691758991572889226e-01 -1.231956915887704396e+00
9.976886046841486611e-01 -4.537913324532430459e-01 6.605166660171896131e-01
5.419688571329482896e-01 1.194963584333861961e+00 -3.926434872054529457e-01
-3.933414582270526316e-01 6.030255185880933899e-01 -3.529337285141537217e-01
-8.413110244762121992e-01 -6.269592782045211310e-01 -3.427527364655498232e-01
-1.231978593523105792e+00 1.318530169805284702e+00 6.806211106747235284e-01
1.240323913568752046e+00 9.060571517269004893e-01 -4.053690333422738656e-01
7.910495448972890142e-02 4.215779783764329602e-01 7.847358784855835712e-01
-2.100950703464400104e-01 -3.621536767769501508e-01 1.644652349925906476e+00
-1.968010035237919286e-01 2.232492470377537952e+00 6.447397703827609239e-02
5.195444114028793248e-01 1.677094660141300819e+00 -4.029365089061497929e-01
7.170354047876253967e-01 -5.435086526399617313e-01 -2.216891243985169346e+00
1.813364097493054716e+00 5.811055830757767549e-01 -9.016220696157372094e-01
-1.339373109270493467e+00 4.919945108546838197e-01 -1.499440567855101270e+00
1.260155756230358248e+00 1.281543550368839490e+00 2.045755754757364320e-01
-3.065334110698037851e+00 6.742777281098105702e-02 -1.358465953903929657e+00
2.784734778547994782e-01 -5.459081416951201415e-01 -1.841152288915058610e-01
-5.209200448358510815e-01 5.672527292550946232e-01 -3.302846929775398177e-01
-9.208223802530962621e-02 -9.392901053298381431e-01 -4.751581807627272558e-02
5.650925254390610775e-01 -1.919078595978652713e+00 4.610416492049053683e-01
-1.430109844012823206e-01 -3.903490529557575028e-01 3.013697221423136119e-01
-1.132820761144452681e-01 -1.906490405162166724e+00 1.387630040565900891e-01
2.861183593372452205e-01 -1.975650416528707681e-02 6.793650947686258323e-01
-3.442164048154571221e-01 1.191708140720806108e+00 1.426303295539596450e+00
-6.901632464202226425e-01 -7.410147182928199239e-02 1.594802574985033639e+00
4.246816374587557563e-01 8.216583345997684473e-01 -9.199829354615574051e-01
-8.932505255285071166e-02 5.078663066494133460e-01 9.689270797259942336e-01
1.561017117886928929e-01 -2.933902799809338657e-01 5.592259698232002751e-01
8.354450134628381708e-01 -1.975604521042517048e+00 2.458191031846564956e-01
-5.443678980273920498e-01 -7.835209598473443782e-01 9.496665248279506644e-01
5.617543192112489647e-01 -9.476149231719302457e-02 1.188102667518690980e+00
1.903088504832577632e+00 -1.254943319107513222e+00 -4.573035762850771735e-01
-4.231042106793695967e-01 -1.789597720609123810e+00 1.663077823832521229e+00
1.046243619638222100e+00 -5.993784512997357705e-02 4.367765055595932977e-01
-2.238835928071028492e-01 -3.583209105733636823e-01 -5.918616016391454737e-01
-6.371990428489313629e-01 3.204924244748634243e-01 -7.878274851858272365e-01
-2.120210075398250460e+00 8.113302176176447889e-01 1.842783901213542602e-02
1.297384567184339144e+00 8.247518625992298347e-01 -3.811402405744568345e-01
8.343914840261240640e-01 -1.155806770290397356e+00 7.710736700701857904e-01
-1.127464063729282762e+00 9.995155453810687929e-01 2.031513201260876755e+00
-2.584555751843520613e-02 8.340938179434763677e-01 3.268784763021360118e-01
-4.005273518668507338e-01 -6.901340725140305832e-01 -8.533207642546264404e-01
3.832930298067601105e-01 -1.569033684338654977e+00 1.668032622453216041e-01
2.618421451000023728e-02 1.563595945621153893e+00 8.669968812333507246e-01
-5.404405537500321932e-01 3.533918538715539182e-01 -5.565591571668433435e-01
-9.081325507952410225e-01 3.707528660863111392e-01 -5.382815024388472036e-01
-4.719938529245966130e-01 -7.564005878040386266e-01 1.373329164105509870e+00
3.534736125015728869e-01 1.406486498524662787e+00 1.380872049626019615e+00
1.145974295104951413e+00 1.033468968362839524e+00 5.532855698253019705e-01
6.418296112094378225e-01 -7.521922159404610397e-01 2.592668817955440241e-01
-1.314180627308526583e+00 -8.282555745397512936e-01 -7.583055539606199380e-01
-4.128388802694888393e-01 -1.076472555720899699e-01 -8.738515540291874606e-01
3.668809626562980486e-01 4.023489296142027660e-01 -6.301480971259123542e-01
6.474705648100245181e-01 3.585269740340186195e-01 1.481808529146178888e+00
-2.139140553321185134e+00 -8.768992567057213305e-01 -1.906666524296105614e+00
-7.519102273146636151e-01 1.050658504956136219e-01 -2.783823002028670834e-01
7.233878209618971322e-01 -3.287313939960349873e-02 -1.938697333887049734e-01
-8.698517507837806584e-02 -1.158110818044587154e+00 -3.176671743610009369e+00
3.460246977090499776e-01 1.549004876341349979e+00 -1.775439022584157089e-01
-5.616450616835299003e-01 -6.226552404742350388e-01 -1.484631059187493385e+00
7.640464074015070883e-01 8.901581846625442607e-01 7.194655479023942535e-01
-1.977539751293997172e+00 -2.060676865223059762e-01 -7.280584885127747707e-01
-6.999041878552573204e-01 -1.582174919364750965e+00 9.546182078428221418e-01
-1.052204983265714988e+00 1.217757308659915827e+00 -5.498292041387871087e-01
5.408013845446530965e-01 -9.635118909277554655e-01 -1.650706736120974405e+00
4.084712711266120233e-01 1.155042644372263450e+00 -1.884340116348745431e+00
-5.941710571030929255e-01 -2.837944920825116735e-01 9.458305780584816969e-01
5.865295691329814876e-01 -7.814679781587514640e-01 -1.387600961138438116e+00
4.666779733539582753e-01 -3.127579588935717747e-01 1.252180109880745684e+00
1.085627912829615349e+00 -4.124419502490939693e-01 -4.205504659636982168e-01
1.131928178936832730e+00 -1.656715234812363935e+00 2.355539909507119722e-01
-4.166935951147088951e-02 -1.129645144244816324e+00 -5.038548407310187160e-01
-1.148380561419924950e+00 1.014598549692482671e-01 5.879534441869120887e-01
8.315590972907705991e-01 -1.740995273036479052e+00 3.221468804667734220e-01
-1.072266456926890932e+00 -9.977044726133550701e-02 -6.057100514778743783e-01
2.624993627986693667e+00 1.245680571538189951e-01 -5.149817432131057471e-01
7.472307893221261099e-02 -4.467004214300200338e-01 -3.768038188147300183e-01
-4.678858771950333284e-01 -7.904874807442245910e-01 8.788702310271681029e-01
1.295580075457099634e+00 -5.730325749701960930e-02 7.935589156846536985e-02
1.414896688625667531e+00 -5.143289082939218604e-01 -4.626540813155798348e-01
-5.106026939620649657e-02 1.907858396395301526e+00 1.073023106927728509e+00
7.631738480180392248e-01 -1.262221023253597307e+00 -5.717510903488642882e-01
6.058477234461165928e-01 2.601921654038034659e-01 -1.205679255282607193e-01
1.580480792610391205e+00 3.598657554168575023e-01 6.558588266556739654e-01
4.021277316888040576e-01 -1.028645593731420504e+00 -3.351458020813465888e-01
4.445844263406121266e-01 3.336418394107363850e-01 1.056681751505149869e+00
-3.290514213192564652e-01 2.675117032139985307e-01 2.936935498453653870e-01
-1.222349112704866486e-01 -1.670556736125586639e+00 4.471533141543388989e-01
-3.700804277560365008e-01 -6.055433808369322657e-01 -1.365128092390378134e+00
1.522805621605128223e+00 -8.029311303532861155e-01 2.280180067429682822e+00
1.492558706760433118e+00 -2.132670757688057417e-01 -6.569266455854341213e-01
1.443862246144770767e+00 3.271739154565934671e-01 2.813495722320105141e-01
3.462068986060856668e-01 1.046965284759639181e-01 9.772807926278491708e-01
7.269106526854991479e-01 -1.261625175102726981e+00 8.362749543112484307e-01
4.045617253868323271e-01 -1.919095193362406748e+00 -1.459887848351895778e+00
9.875042042156043642e-01 -1.758564745982542199e+00 -3.609157301458208733e-02
1.143452350006885609e+00 -4.614879309843854527e-01 -1.150980891035218306e-01
1.137805303345793773e+00 3.646734710729521711e-01 7.591656630569274533e-01
1.008037725372538551e+00 5.711030838563651013e-01 7.255219369134182639e-01
-1.729550012885396615e-01 2.242419171342442674e-01 8.974155415271563019e-01
-1.959297126851738402e-01 -1.182665985980515755e+00 -4.793428771765215202e-01
-1.896921225421785540e+00 -1.598331578568706057e-01 -1.620837510202590703e+00
-8.254576119736085904e-02 -4.718546501050777109e-01 1.659506977482669621e+00
-1.485708387192245239e-01 -1.698068266678662397e+00 1.137342603622743864e+00
-2.376062661362613737e-01 -7.464093619134635205e-01 2.916844383642784311e-01
-5.885188033197221724e-01 -8.975606508951212703e-01 -4.171869047363971350e-01
-1.474383063951813622e+00 -4.395566239227018390e-01 7.320669123785747967e-01
3.070438036247842284e-01 -8.497836425764386525e-02 1.123997289334720762e+00
1.754964275565448761e-01 -1.358462727537110837e+00 -1.431591439553172140e+00
-3.755163246695238932e-01 -1.111515674613398730e+00 3.003402153840032361e-03
-1.676812060305545860e+00 -2.604424595893084504e-01 5.610352864850820520e-02
-3.631019516034172945e-02 -9.860418456650212882e-01 7.253889522486164365e-01
2.703222774993327970e-01 3.846063154499729797e-01 3.282071627436337069e-01
8.782476706678696843e-01 -8.427762268013481162e-01 9.707624399280111172e-02
-6.682768389565616474e-01 7.682575345345792339e-01 -7.608500661744770355e-01
7.651636742302430072e-01 9.768861570806031125e-01 7.170801564642277637e-02
-3.367190147640227588e-02 7.969820841538663991e-01 2.427178752092205849e-02
-1.247915912825797280e+00 -9.870919174361282300e-01 -1.032945168600956531e+00
-1.065571065367980630e+00 8.462219482492721045e-01 -1.148575645381995525e+00
1.835785823085659407e-01 9.585383692506049824e-01 2.500734086680795443e+00
2.285134492539466766e+00 -4.525536794824906450e-01 -9.348157332445610201e-01
-5.561367036289960319e-01 -1.527960898102665555e+00 5.946506060406415717e-01
5.424543967827661906e-01 1.611648130012489633e+00 -1.465149097171704717e+00
-4.106847522422379937e-01 -1.009980196600433339e-01 -5.693340000959398184e-01
4.343962934348514771e-01 -1.338756282931700570e+00 -4.133817728726800200e-01
8.226996093440332170e-02 -1.543649487685021804e-01 5.068674260926906427e-01
-1.851695819743446325e+00 -2.394304031062020333e-01 -3.356214561016484521e-01
1.433525408838552062e+00 5.493742593059406376e-01 7.204073643928684545e-01
1.088445006592574815e+00 7.105847600464055835e-01 -2.062605574888869420e+00
-4.429567188166083636e-01 3.476207171245221383e-01 7.707565546306051063e-01
-3.962680042312203277e-01 1.314308414409547154e+00 -1.104119152428298528e-01
5.278208744244844430e-01 1.747409292417468230e+00 -5.631861488706306762e-01
2.563880498968758581e-01 1.367744028059736161e+00 1.119874984397594808e+00
-3.230707710939914558e-04 -6.125681469254949940e-01 1.666252727000948397e+00
-1.189030005262017076e+00 -8.206007700195743215e-01 -2.000974460538759381e+00
2.597924642293422681e-02 -6.816825097772898356e-01 2.846795803210037668e-01
-1.071152850819858227e+00 -1.548619864331141960e+00 -3.468481004420952973e-01
6.032984653366155747e-01 9.478362994785916040e-01 -5.756199302796333184e-01
-1.930229374065150494e-01 1.029202033953916073e+00 1.771361121638008518e+00
-1.030976993166262540e-01 5.287112990546832814e-01 7.893345903853660195e-02
2.827585350016164067e-01 2.444553201643099305e-01 7.599114532702686553e-01
8.507075753192295808e-01 8.741342437598816906e-01 2.820713319879115111e-01
-1.510389147641617302e-01 5.976189152625270840e-01 1.227306806687077589e+00
3.189403234108525442e-01 1.470319276798990105e+00 9.066407429849940858e-01
6.969433322015090582e-01 8.525349768289403052e-01 -8.861035954999222364e-01
-1.703731663109241623e+00 3.129786266476576873e-01 -2.163997065769406536e+00
1.654153653804803392e+00 -1.340204639726295888e+00 -1.569681262705343860e-01
-2.901413178562117778e-01 -2.563348156380930720e-01 -7.464670087072862170e-01
2.595655560707961218e-01 1.330479880062124920e+00 -3.296125357356539665e-01
1.434742564782240937e+00 -1.534218401687671429e+00 -1.281423823216860935e-01
1.914466054226808156e+00 -4.879973965046449647e-01 -1.824438907941539068e+00
-7.616344000116639368e-01 5.827081000000439159e-01 -1.184241308007367266e+00
-9.207705683005064090e-01 1.089378273506848016e+00 -2.354202107595212978e-01
-5.733192435413721200e-02 -1.262439773952918509e+00 7.613039907645757776e-02
-6.825786144701700975e-01 -1.713922630675387970e-01 3.805417906907742065e-01
4.189018920208324552e-03 8.984927032016915005e-01 1.183378306645206601e+00
6.676056457074636130e-01 1.243447627718349491e+00 9.660652487613954342e-01
-4.776784367047255397e-01 4.327941027096096627e-01 -7.965434647218365694e-01
-4.677868826560190041e-02 1.154317538596199899e+00 -3.362144018996885420e-01
-4.470752441984794379e-01 -3.912137564692624303e-01 3.708666307928893402e-01
2.198428711187448148e-01 -3.235233051173487251e-01 -4.508801918647453721e-01
7.517249641991449183e-01 5.745803366568597373e-03 2.124543245204207065e-01
9.063447820050074544e-01 -6.373652465214029172e-01 -2.207419800105915542e+00
5.929445865392425352e-01 -1.433984465469965996e-01 1.884139897232146310e-01
8.938339555010317294e-01 -1.018389658026323863e+00 1.465939180485613669e-01
-1.303270463571289117e-01 2.060228560290596977e+00 1.047043210825837178e+00
-3.255275216657356752e-01 -2.587706565654943613e-01 -1.928816060562606127e+00
-5.059201894504700842e-02 -2.859297766546931019e-01 -1.233933446824237778e+00
6.271291567972393510e-01 -2.128524142792176388e+00 -7.291454764149078727e-02
1.190291151251831048e+00 2.425023088457607945e-01 -2.328047240424766073e+00
-2.662251785252948699e-01 2.992681047112356538e-02 9.295896978682357537e-01
-9.147659868748554690e-02 2.530122359700727408e+00 -4.231401584070768607e-01
-3.740709484089849157e-01 1.477768554944089152e-01 -8.690394715071569909e-01
-5.532417763361785479e-01 -1.903344664479048820e+00 -1.744844295408978008e+00
1.441353317448376803e+00 6.212208548505913086e-01 -1.070088447935939824e+00
-1.665175918825520185e+00 -4.586025014849651193e-01 -1.594216784035698276e-01
1.405626940660697155e+00 6.723129185189693491e-01 1.493499109241017697e-01
-1.380431685019328336e+00 7.214048759356307405e-01 -1.213680525271419341e+00
1.032463474638862788e+00 -9.833173267504704551e-01 -8.829932033913966416e-01
1.251006340372609271e+00 -1.761453793618240837e+00 -7.672993355858755138e-02
-7.842897665769218429e-01 8.590103257907043544e-01 4.616499206989947424e-01
1.115147973633216605e+00 4.710658262768594451e-01 -4.972343408720686364e-01
7.512850716222547742e-01 8.421087635510443592e-01 -8.703430798163519500e-01
-1.288358330989650025e+00 1.961751185075804704e+00 -1.019268062950787090e+00
5.900445758146531938e-01 -4.483749072013534231e-01 -9.994970350890645117e-01
-2.068075582047941730e+00 6.130628211476654155e-01 -2.834951652919683318e-01
1.099629272046832362e+00 -5.999386580079958398e-01 -1.173163303991007878e+00
1.611007874869368806e+00 1.229877297242992995e+00 1.316561571469957725e-01
-1.204321340692497688e-01 1.081453255752654830e+00 -1.817603889819168206e+00
4.436169071059931773e-02 2.272334996261983431e+00 -1.143132635064981084e+00
-5.498991131007058275e-01 5.209853183038830604e-01 2.067613125594885304e+00
-1.328584831803083732e+00 1.239078633229386384e+00 -1.490073966190339494e-01
-7.481549337794922427e-02 1.695161312467744208e-01 -1.436898956017259144e+00
2.899218831970677979e-01 3.049331014732022949e-01 2.509888221573429168e-01
-5.077802569903621110e-01 2.429216818771555986e-01 5.040876530060681704e-01
1.442922578064307071e-01 3.322702187820121295e-03 1.237573341600947952e-01
6.762837148583720204e-01 1.127768218511640663e+00 7.357892288514651380e-01
4.799487573890352521e-01 -3.881812329732258759e-01 -2.458744439310457164e+00
-1.143743316048433822e+00 4.478168375408916879e-01 -1.629095619439040465e-01
3.763881477973945455e-01 1.690078249432524493e-01 5.786425642717311080e-01
1.381043274760675788e+00 -7.953440338494129902e-01 -1.111606207852741113e+00
-9.811678685780564346e-02 5.205376242917232332e-01 -6.646343839038140744e-02
3.153743998865708442e-01 4.344164634910569478e-01 -5.249853186835308216e-01
7.736103331244900128e-01 -3.622216265173854310e-01 -5.541332884498483269e-01
7.260789602662236497e-01 4.191702520612263227e-01 -4.921568150685640131e-01
4.789693363067576426e-01 -1.047446452272505768e+00 -1.638147179114565199e-01
1.291319022799088057e+00 2.479546085082910967e+00 1.607471300365702405e+00
-4.702052268832778714e-01 -2.163721024998781495e+00 -7.333314682802404283e-01
2.273501645643496882e+00 -1.694751025051127513e+00 4.294700671682805670e-01
-1.787858702647515119e-01 2.085801789022715180e+00 -1.812710033308971846e-01
-5.887374314480124937e-01 -2.282988374704110424e+00 6.927276249042012557e-01
-8.124042027470725902e-01 -2.535576696652698914e+00 1.592991929060251888e+00
-7.442431642616404996e-01 2.936107725561071247e-01 2.538016029236330254e-02
-1.375489832267875023e+00 -3.631990450727429764e-01 -2.081228478662563164e-01
-9.900828488197673805e-01 -7.419601283186963436e-02 8.044494334972956961e-01
3.029130213135041716e-01 -1.052111369266057084e+00 2.712522868170435530e-01
-1.208230539865371878e+00 6.559462540330048830e-01 -2.862818813447451805e-03
3.797583327525086982e-01 9.305369910892986873e-03 6.171722824701306731e-01
-1.756606827381571034e-01 1.450332479968320654e-01 3.135137877888873881e-01
1.019468092933361936e+00 2.148264275249187616e+00 -1.328807942673582598e+00
-5.476058240392996934e-01 -1.124269710465332972e+00 6.883242500751515225e-01
-6.503268889427329391e-01 6.435701840852100508e-01 1.017167109330690655e+00
-3.839064091742481755e-01 4.495642997210704817e-01 -9.723670077143987678e-01
1.034008688513747387e+00 1.160395709432000100e+00 -4.187916414100391060e-01
-6.104614293643905176e-01 4.370705053971371545e-01 -6.161612540891038270e-01
6.452079396087599950e-01 5.051308194644238414e-01 1.138088405093579780e+00
-2.455196437881126958e-01 5.810491274242571974e-02 -1.750373310544409255e+00
1.429359014559849150e+00 -9.065904296006177532e-01 7.486063095541261037e-01
1.273032763550004498e+00 -2.168630296303388494e-01 -9.976794873180394596e-01
-5.661617418549478309e-01 1.051296615898381859e+00 7.329380315038122040e-01
-1.489753378431669939e-01 4.219268280901351531e-01 -3.286083770965620432e-01
-2.647023227499101683e+00 5.736002738511474242e-01 -1.239600383975344583e-01
-1.024256510943667653e+00 -9.675909628602360479e-01 -1.136992211318202939e+00
1.526762481732119481e+00 -5.556276229092227403e-01 1.564772267877724832e-01
-3.173508449415861354e-02 1.093047178124214369e+00 -1.352253841529946543e+00
-4.300885157530509040e-01 -4.320239158099077881e-01 -1.143974095368951893e+00
4.707619164010992119e-01 -5.146850155805808846e-01 -1.166009991322648265e+00
3.484365001179032251e-01 2.853815004309515069e-01 1.224803952532478979e+00
-3.646499928692881753e-01 -1.685319981239440379e-01 -7.782894076796568195e-01
-5.607076085013730227e-01 -2.664486106607566462e-01 6.490705987884125561e-01
-9.062739602400258221e-01 1.376253730157865895e+00 -4.713214593687024556e-01
-1.673634866970506785e+00 -2.768083941198923315e-01 1.619248538818364169e+00
4.806396821200238922e-01 -2.848833938729517512e-01 4.367950678401658071e-01
-1.246490743773691401e+00 3.267944835770232870e-01 9.973370406592196868e-01
-1.483322337263393853e-01 6.523582235017140185e-01 1.552686180524938120e-01
-7.290252987099501425e-01 -2.198274533458932298e-02 -1.052523096887225895e+00
3.377203546372148368e-01 3.406298214684861936e-01 3.474879316536710894e-02
8.719700576999077635e-01 3.705070356174327562e-01 3.586958811702806171e-01
1.712249908984238234e+00 -1.618227796651526607e+00 1.141301381511469204e+00
-9.466745982136536286e-01 -1.350828569897896791e+00 -7.381166808024068882e-01
3.655955669865487145e-01 -3.059775297208170430e-01 -4.161682160072379677e-01
4.733500082188173419e-01 1.749485023882526094e-02 -1.221162892490486929e+00
1.216846925295776094e+00 -7.036987532178943239e-01 -2.638442459784219984e+00
-1.200059823676471238e+00 2.188301850375133473e+00 1.264800922452149923e+00
-1.299694601599959531e+00 -1.887918114323458019e+00 -5.224496204872578486e-01
1.017757055828064860e+00 3.405008597086776612e-01 -2.249312805228027567e+00
1.718881101214845275e+00 2.494177986511348089e-01 -8.479166625955970593e-01
-6.438689813094873315e-01 -1.291958631520365164e-01 2.420401799555099709e-02
-9.240634721163425436e-01 -3.244076016850814259e-01 -1.568414394936791467e+00
-1.045425865737687143e+00 -1.365041600049947457e+00 -9.163705083257787098e-01
6.654173462453395749e-02 1.636488739381805724e+00 -5.519409242195538745e-01
5.113240562782790377e-01 -7.307125577153626983e-01 9.491885656968487850e-02
-3.722599858288518429e-03 1.577839953094622771e+00 -4.602897028124007806e-01
3.280584615873896048e-01 -1.531540367773501998e+00 -6.597220824202622014e-01
8.365743561671957762e-01 2.358932571261895539e-01 6.543940835917485543e-01
-2.944018086361036568e-01 8.773992912403375533e-01 1.585595032163970297e-01
1.032827202516948706e+00 7.144798694802653172e-01 1.741616594528275330e+00
3.397622611314586871e-01 -2.778607441256321087e-01 -1.271385759251183245e+00
-3.825493029227161057e-01 1.170389205722364295e-01 3.380685850267195480e-01
-1.479423192563506795e-01 1.564158453593368137e+00 -8.507769726734405458e-01
-4.604335061245963256e-01 -3.964385230920517977e-01 1.017627887597658987e+00
3.651208915296289687e-02 -2.320210787221925308e+00 -1.467747105183128953e-01
-1.276936800137216554e+00 -2.429829836835723622e+00 9.762088352569296967e-01
-3.178699309734495659e-01 -7.686159172638490356e-01 -3.852811949681163306e-02
1.892374130842469637e-01 -7.611374347861030731e-01 1.344918731848099291e+00
2.040616570447891132e+00 -3.062419948721570417e+00 -6.244186138168092981e-01
1.460223916089822049e+00 1.590497937663718061e-04 1.260106291190133732e+00
9.789879043568064931e-01 -1.442775829523134101e+00 2.534084799945008459e+00
-8.047176350455249594e-01 -1.118497217146697809e+00 -1.073035653510794052e-01
-6.273196058109116180e-01 2.148518119579074792e-01 -3.442579886525986010e-01
-7.496987269600792203e-01 -5.542634069648778583e-01 -7.436470948543338899e-01
-2.655502740852463406e-01 9.876780003037740618e-01 1.213422899275113931e+00
1.302616456041462589e+00 9.264301058566908331e-01 -8.935892387165970119e-01
7.166872205129485307e-01 -6.758471110314709929e-01 2.403015820659246127e-01
1.322575430182023393e+00 -8.806420937025657425e-01 -1.188923029449315161e+00
-4.114611200302651373e-01 -1.222200365159325619e+00 1.028961026566000525e+00
-1.643733199110065657e+00 -1.305290933016376165e-01 -4.447649805779861909e-01
-2.808144828772953239e-01 1.293847767193737341e-01 1.297688656919265160e+00
9.578267519847968314e-01 -1.025763767491266520e+00 5.845574329183165219e-01
5.442551226826083388e-01 1.145620123104128973e+00 -9.406040246719150622e-01
9.902121149126718036e-01 6.455907236579554176e-02 -9.586692460415842387e-02
-1.050149204632691902e+00 -1.719757468781053067e+00 -7.013168418240005586e-01
-1.380587755285276330e+00 1.193246308784704723e+00 2.522817452668534854e-01
-1.613592831533456673e+00 1.002983045271572671e+00 -3.878625300886327509e-01
-1.041605524442206887e+00 8.110216552286760860e-01 -1.043660067372348177e+00
-8.521203351749068178e-02 1.817818674220156971e+00 2.680642004491347041e+00
1.007698912596925567e+00 9.496712496878961796e-02 -1.097781786187262965e-02
-1.493586191489536530e+00 -3.512210525647632697e-01 2.426503195394327794e-01
1.124996421101750688e+00 -4.552254532336362791e-01 1.082766106791792415e+00
1.267783456251296403e+00 2.244831724434143805e+00 1.468237383220347470e+00
-1.403681697508532444e+00 3.027885519922936530e-01 1.186216827181407751e+00
-7.189740562008228864e-02 -9.043768788483311782e-01 3.311727441902116431e-01
-2.045426065758731760e+00 1.137879965583230403e-03 -1.128029867383483764e-01
-1.932070184898203313e-01 1.884506809511461656e+00 1.952582323904279160e-01
1.186880674146640446e+00 -4.335902732581827790e-01 -1.398523136477909601e+00
1.429805642886375461e+00 -2.822947835153738483e-01 9.353025330572112273e-01
-2.148475761673367679e-01 2.424921814364079609e+00 -3.958764171878383364e-01
-1.746770833071142226e+00 -3.468164999057893327e-01 -2.130678995756433824e+00
6.506623436639275004e-01 8.246604488381649167e-01 -1.227075862357994263e+00
1.539319316907394430e+00 3.608275541438270007e-01 -3.302328521896075175e-01
5.009881397965354477e-01 6.284631100018372996e-01 1.368321289284243347e+00
8.726900673905854111e-01 1.103401863558329393e-01 1.221076562352696016e+00
-1.115198483141295105e+00 -4.288842302668000039e-01 1.949172365834676846e-01
1.188476951513040447e+00 -1.429987164695235499e-02 6.434447367854314592e-01
-1.754870720843196619e+00 -5.252703067104561585e-01 -1.962316603077192134e+00
-1.186659998747896960e+00 -5.696103379643022852e-02 -1.458540759460164482e+00
4.731021128604083192e-01 -1.015515209509130878e+00 1.184829044162154510e+00
-9.910245874935162957e-01 1.263520928352518835e+00 9.405221373213618064e-01
2.207468969676106840e-01 -7.433035377693238965e-01 -2.636415351714185493e-02
8.027304992678983009e-01 -1.390557621435988267e+00 1.578742025534426996e-01
-3.076370466054753269e-02 5.592485287101562896e-01 4.853924352212108384e-01
5.824586751741546442e-02 -4.659774578271805856e-01 -2.332284502072256682e+00
5.552406373595899364e-02 -2.432264500189307010e-01 -7.659503499690315520e-01
2.044326559740035965e+00 -2.362515005559035208e-01 1.478119232387524740e-01
-6.610455896656378671e-01 9.269800000340079338e-01 9.508489199940478587e-01
7.590809033341804346e-01 6.711731025541733953e-02 9.113110096287933004e-01
9.084424017047675326e-01 9.790133734812932476e-01 1.023718481463319119e+00
-1.537101678440443153e-01 -2.292049886748680765e-01 -1.934581774555934608e-01
-9.636150532230363108e-01 -1.585490978346230234e-02 -1.140630410127498884e+00
-4.381371019801972300e-01 -5.271171221588357714e-01 5.776090743666698613e-01
9.259920648880465288e-01 -1.438624734587664378e+00 -7.558974238061644257e-01
1.412908025104853360e+00 -1.138502059007475253e+00 2.247631713434842249e-01
-5.663522046470119697e-01 -1.654439156291794166e+00 -1.448929011166326664e-01
1.128365918560442882e+00 1.332555016970061457e-01 -1.618031087707201277e-01
4.621228150051612249e-01 -1.420368685848914792e-01 -8.871303376794997808e-02
2.532231022563558726e-02 4.636438514245111442e-01 -4.276613945572813047e-02
-3.949658614244808685e-01 -3.409716591650113759e-02 -1.311200363022222648e+00
-1.496124049471486028e+00 -1.124560762880424392e+00 -4.274352037882517275e-01
-6.471991351861241526e-01 -6.867532131730189060e-02 2.631585501527898829e-01
5.101555953649599129e-01 1.441710817460649219e+00 2.047280760001178646e+00
-4.561516505645152875e-01 6.833591436567032495e-01 5.962741883513247299e-01
-4.891380075531768234e-01 -1.089622150277870904e+00 9.498731698087125030e-01
6.705412600748816843e-02 1.680704780398728782e-01 5.425397073249274005e-01
-1.022570693372867767e+00 -3.026365363537045772e-01 3.526403230880447714e-01
-1.736924454047191757e+00 4.419140636898309382e-01 -1.604929820483462999e+00
8.901701555667876908e-01 1.020084117886017827e+00 1.298281728782607836e+00
-2.231124145780071788e-01 2.128677608330006576e-01 -6.165480496494201157e-01
7.247988148543925702e-01 7.876386392367588085e-01 4.358280889249550594e-01
-7.606023659728053943e-01 7.163793319990980901e-01 3.328322324430416090e-02
-1.081214599256943298e+00 7.485558435729970650e-02 -1.692487255214401506e-02
3.387871131024523530e-01 -5.673525676687815045e-01 4.313748945902914911e-01
1.227852798609250007e+00 -1.240801149349647581e+00 -2.451653010445362935e-01
-6.489597713761009468e-01 8.108612195173422466e-01 3.985278618593615652e-01
-1.303747130495035433e+00 -4.287744113429095005e-01 2.973914649611880123e-01
-8.217630981773571541e-01 -8.786956778043255589e-01 2.931492270599065364e-01
1.099364837824911678e+00 8.756767123222711779e-01 -1.296104477829538304e-01
5.234109715106059074e-02 2.838068026032702917e+00 8.105541352658386656e-02
8.319742220509966923e-01 1.701372467378559517e+00 -1.694169864183622254e-01
-5.111454446663884488e-01 -3.216300386586863347e+00 -1.210044664765618672e+00
-3.428223133638100273e-01 8.197642408429569594e-01 6.807575678444660605e-01
-2.226966483196567426e-01 -6.910333171930309604e-01 -3.763701228654420250e-02
6.614612186317283538e-01 -2.181668887320489802e-01 1.037575126391095282e+00
2.394105249661783730e-01 -1.664235416448272664e+00 7.316118610052142479e-01
8.336924770372075022e-01 2.694295210419028197e-01 2.729481210896182383e-02
4.025031315877237725e-01 1.136360185688298996e+00 8.594640340522495814e-01
6.618584084706298498e-02 2.227802960681867228e-01 -1.786030940870680095e-01
-1.464116103958149839e+00 7.712085798415776461e-01 -9.855618255116128656e-01
1.167698852571445345e+00 -1.073048087550033891e+00 -3.071628594828670900e-01
4.474090803968608920e-01 1.578415003817658646e-01 6.278528504567479906e-01
1.407127256413768901e+00 3.965628428052682397e-02 5.845343937955742586e-01
7.466740300388843843e-02 -2.990864118395734073e-01 3.436357838244298857e-01
-2.358921782457907290e-01 1.529805037323071215e-01 4.801562525134511206e-01
1.276792188054563792e-01 -7.648180641107777955e-01 5.805650056843121298e-01
-4.457555348811781393e-01 1.214611801889347309e-01 7.227190479387364253e-01
-1.268856557396483398e+00 -6.188034686151506758e-01 1.927081296550663403e+00
-1.273650038653532546e+00 -7.427848834192039840e-02 4.464456703100916912e-01
1.855851784702185814e+00 7.212556637535003645e-01 1.382974850361183394e+00
-9.929141259866575142e-01 1.237009669268627432e+00 -1.276600618000586218e+00
2.083295354930925769e-01 1.312545312691045796e+00 5.461696949755426855e-01
4.583820230085208225e-01 1.651047713954665319e+00 6.853118021858633016e-03
2.979301377777924809e-01 1.605276063000947939e+00 -3.456226179571856433e-02
-2.266043689242421166e+00 4.539017987700603718e-01 -1.379895150816318639e+00
-2.392966455785851210e+00 -3.945447806573463279e-01 5.175747956258919258e-01
1.443395674740920009e+00 -8.917402961651001991e-01 -1.146062578549550626e+00
-1.609984070368070341e+00 2.547718308714582491e+00 -1.796006829414608985e+00
4.798846111626515754e-01 -4.045269833508441382e-01 1.124273603065818694e+00
-2.174914404503866527e-01 -1.699490285754433894e-01 -8.336480403144669316e-02
-1.679965694584884206e+00 -1.649291260638499068e+00 -1.047834782773145790e+00
1.867441694467776081e+00 -3.599349705507733921e-01 1.151504827715929657e+00
-5.535411829321414956e-01 8.978354094991437551e-01 -1.613271934872087865e+00
1.053274553607282282e+00 1.896757931177615042e+00 6.755326861965350871e-02
-1.322201726112961495e+00 3.042351429511447880e-01 -6.411891111075039840e-01
-5.068263182201727668e-01 -1.073037314849653701e+00 7.699753033193013074e-01
-1.749546998580134849e-01 -2.097461032871512643e+00 2.886087731169287296e-01
-4.512399831275152873e-01 -2.032608255067415381e+00 1.482728167066017788e-01
-9.608024350588653117e-01 -1.265844299205450385e+00 -2.423245866854630837e-01
-7.278945031805518218e-01 -1.157038839989881440e+00 -1.483467876875435465e+00
-9.742425034936212924e-01 -1.164085148896645494e+00 -9.316929448777766520e-01
7.054953314310965506e-01 -1.359340102221671565e+00 8.094499851330118068e-01
1.897396912766942334e+00 1.187021546186392440e+00 8.414875400778125680e-01
2.250889499956088002e-01 3.659664619533412599e-01 -2.143343833140205490e+00
-1.465581622158467878e+00 -1.190281968260785472e+00 -2.302771556353248039e-01
-9.341286758373154031e-01 -4.420312757844220564e-03 1.977397597171218324e+00
1.628173702939093026e+00 -1.610470716209239317e+00 2.979555460248380916e-01
-1.834589128184833884e+00 6.895002271566009755e-01 1.511523934478153253e+00
9.543228035063333614e-01 1.249178792264053373e+00 1.429980940046929216e+00
-5.900793340730570158e-01 -3.818718714909340173e-02 -2.157791651036850555e-01
-8.523479612644867531e-01 1.967981240342748572e+00 -1.038760640408568303e+00
-2.508395434563718829e-01 4.327168867045430578e-01 5.344205124601751622e-02
-1.036221317539570475e+00 9.156005457729515795e-01 -4.578338801714078032e-01
-6.890279840184584392e-01 -2.843038774388200740e-01 -3.991531657184495541e-01
7.522238093759050503e-01 1.190343901032367757e+00 1.734081970723766908e+00
9.255429441016346237e-01 6.492746323437784683e-01 9.368223961133008704e-01
-1.448824486477899631e+00 -4.060996028981632699e-01 1.697265228615146171e+00
2.265024467802982056e+00 3.490019803640200813e-01 -5.099004395060600103e-01
-1.122566734202399719e+00 5.147628230953542605e-01 -5.543128946491175935e-01
-9.077261412071243596e-01 8.560817235917674850e-01 -1.568538655923254588e+00
1.966432407046125597e-01 5.732546078056299788e-01 -4.961493183390838779e-01
2.050258918712536182e+00 1.101004722187636231e+00 1.053142702173040179e+00
1.245631891348436771e+00 9.493594917380318021e-01 7.444242133647690496e-01
-1.766816524593423310e+00 2.263325475621056349e+00 4.294081049335926603e-01
-1.382036803729866925e+00 4.998768961748175088e-01 2.843727838179292977e-01
-9.562812277364938218e-01 1.312065387133405148e+00 1.282778344148841398e+00
-2.944646007260736664e-01 -1.597342246492069184e-01 -9.357816223884363183e-01
-2.245916019811414754e-01 -9.418497591998894469e-01 -7.826506981745092739e-01
6.972129924033473314e-01 -3.969391153558641805e-01 -1.693811252803001155e+00
1.958803792824008072e+00 -9.523506164270888474e-01 2.280194513862971173e-01
-1.750626924863791511e-01 -5.536036071150815530e-03 -2.466537219528241454e-01
1.842276950506694710e+00 4.722004779764880228e-02 5.746708197961033493e-01
8.392799500628885800e-01 -6.194870938279056771e-01 2.698410006185727017e+00
-1.344060438415423997e+00 3.279936008394005592e-02 1.414665264137006773e+00
5.186850814488705441e-02 4.014291748718014641e-01 5.822242845774172615e-01
7.124383935753867414e-01 5.396475751370142238e-01 1.140672733447258835e+00
-7.833204883771648364e-01 1.833235991002872267e-01 -4.792096923319904000e-01
-1.150670904883826839e+00 -1.122485503595586742e+00 4.146619586451842365e-01
-4.834434727204224291e-01 -7.809009288185275732e-02 -5.446272687746627206e-01
5.855058902280139144e-01 -1.695061057783779246e+00 -1.755099997681397114e-03
-2.307509030485812088e-02 -2.896639323135055677e-01 1.511572265972088713e+00
-3.837589359357669871e-01 9.166054511762918022e-02 2.666683556104777475e-01
1.004247066650569842e-01 -1.365656561162965910e-01 6.708069528716175123e-01
1.153173705526515658e+00 1.205709277844849159e-01 -3.011667332141946818e-01
6.526110972070477967e-01 -2.480514935912125019e+00 -6.234418490635798560e-02
1.009299661208176574e-01 -5.607739809201650605e-01 -5.945166936574175498e-01
8.941519788850837980e-01 7.217269601489005870e-01 7.882206327896360554e-01
9.849212038850410078e-01 -4.801333297245914400e-01 -1.445022344202810949e+00
1.411104577230494206e+00 -8.058417000478376169e-01 -6.814756699587490862e-01
-6.159807170679310051e-01 -5.987851983415676260e-02 -4.725752202968883098e-01
8.905333328180409236e-01 -6.214804532927390435e-01 -1.907923863713286705e-01
2.004263857765183066e-01 -8.388685857580182592e-01 6.554375499438261365e-02
6.813136030710140734e-01 -6.653679536243760628e-01 -7.074001621254805139e-01
-7.137535501592064957e-01 1.232869452630695362e+00 -4.657377015248479607e-02
-7.466661753646612887e-01 -8.527551572618143894e-01 1.572562858712027500e+00
-9.565463215973102340e-01 1.483232112942221681e+00 -6.817452731793309795e-01
-1.846004255008868666e+00 -2.632077704495003889e-01 1.699006657495909511e+00
-5.141144198227156625e-01 4.462882021899470565e-03 1.668689656988195491e+00
-1.353333791467934699e-01 5.718402402972490028e-01 2.197759984207331985e-01
-4.244927419524774925e-01 -1.015089766623473055e+00 -1.199976515990571091e+00
-3.142364103074836157e-01 -1.435262202094664818e+00 -3.457807461215466338e-01
-6.560613397750022502e-01 3.495968522134999534e-01 -7.355284785953795090e-01
-7.224413595361558471e-01 2.108101830248512998e-01 8.828643707620164038e-01
2.887486208914060160e-01 -1.173175771228438302e+00 2.671587207750452872e-02
7.557716795256679276e-01 -3.671023622068619319e-01 8.257435569981630419e-01
1.501374787247072851e-01 -1.720681032776259833e+00 6.007697580195138221e-01
5.297065291671195775e-01 -6.801884106108645467e-01 1.055069037953559885e-01
-1.904489291710471932e-01 -1.007393681794153562e+00 3.167031710868477012e-01
6.498725543282621864e-01 -4.619869649190865846e-01 -7.182282909483936884e-01
-9.884588936910333468e-01 1.984112084102920504e+00 -3.750546602496453441e-01
1.083458304180445086e+00 6.472293090886006572e-01 4.971276086387256821e-01
1.784172693247562669e-01 1.810127181599378299e-01 1.496659398395223939e-01
-4.369679394229000757e-01 -1.066168410423067758e+00 3.040442856758022172e-01
-4.516560307408158392e-01 -7.783422376184824243e-01 -6.947219871772734034e-01
4.863108137024620969e-01 -7.370223553117859483e-01 -1.571110620882979481e-01
-1.048624645529474542e+00 1.078615039845050250e+00 2.551902026127181866e-01
8.984028524282295924e-01 1.051383176440406908e-01 -5.955179000135854550e-02
1.164713272843741709e+00 1.361805314240448261e+00 -8.518165539750877091e-01
5.352904503811105608e-01 -1.374325667802829054e+00 5.582856825347568552e-01
7.022501683696601438e-01 9.118947854831069288e-02 4.600754874620776036e-01
9.351424658110241150e-01 7.303797645210373668e-01 -2.525246248383901659e-01
1.395991778201697509e+00 1.098705528229311917e-01 -2.695924318541620401e-01
3.334216549632084137e-01 -7.508762139965564908e-02 -2.829221999581643110e-01
-1.293087550660698470e+00 9.770578821865704144e-01 1.094799825645519809e+00
5.072971839729861765e-01 -1.402346520442392608e+00 -7.036393191138851089e-01
-5.132071260374105881e-01 -8.736622525455237653e-01 -2.468290411339720269e-01
1.518270757776046254e-01 -1.508655384436306868e+00 -1.475034145770114449e-02
1.773194259002373041e-01 5.207429290712299874e-01 7.751282879768304213e-01
-1.582174402798353530e+00 -3.561089032515452057e-01 1.442809624431538040e+00
1.881849641265682105e-01 -3.801216881428045036e-01 -3.790799442973292674e-03
-2.193426311977987597e-01 -6.225924027008339356e-01 -5.378194907815152526e-01
-3.933596775521670530e-01 -1.423090713026949672e+00 -1.888493748310909881e+00
-1.100765109994662261e+00 7.609438222144420116e-01 -8.288781896867348786e-01
-6.208548287321311587e-01 -5.529232526373039081e-01 -1.092250081643536985e+00
-2.582313850005198141e-02 1.387003441382939961e+00 -5.722578984883110176e-02
-9.487094242067979355e-01 -2.649410843722338482e-01 -8.034454623578430876e-01
-1.279305753291048488e-02 3.539033546134243147e-01 -1.818800188087393632e+00
1.173934401152887524e-01 4.944077705789253208e-01 9.232246129247384525e-01
1.233502329382578193e-02 1.689250699428002767e+00 1.198268748005883788e+00
3.197714321539756877e-01 -1.417741054343202578e-01 -1.031009573164989174e-01
-9.788864623446440483e-01 -3.173634916374491050e-02 -1.500102369061908192e+00
6.578771551633918468e-01 -2.902698575077649057e-01 -6.667015128278315217e-01
9.149007435376145247e-01 -3.285126280350005867e-01 3.155250781615667188e-01
-1.621491581343659227e+00 -1.886304784835239889e+00 8.405414935220157924e-01
-2.042174506407124224e-01 5.808706840776478586e-01 -5.655343914473363043e-01
-2.659673555635113651e-01 2.468073113601345903e-01 -6.128695313977086112e-01
-2.967508843533121499e-01 -3.954073384863441842e-01 -2.119929020827577282e-01
7.560098176583798235e-01 -7.836792865113589857e-01 -2.247854615716128601e-01
5.448893400709367008e-01 -1.360431062647095679e+00 -1.554739089206824132e-01
-1.589033633554063629e-01 1.732886935603931700e-01 -2.236905458891024281e-02
-1.202774898327831021e+00 -9.221877838319895160e-01 1.239679968247370478e+00
-1.066067841335152089e+00 2.791085483058847183e-01 6.460399373460672112e-02
1.588357987758703072e+00 -2.421209834786361981e-01 -6.681258076943739077e-01
-4.898588315044132280e-01 -3.258543387514049594e-01 1.425687571649284058e+00
-2.661923340875081312e+00 -8.160854184615325968e-01 -2.445041463971034723e+00
1.520489641440039952e+00 -3.553494422750576587e-01 4.439075740479260235e-01
1.619056045062309934e+00 1.691136670473451509e-01 -4.348518157470411816e-01
-9.202650167989315788e-01 -1.070001874996020508e+00 -1.142296298562158086e+00
-1.282654904357275250e+00 6.039771104411680858e-01 7.147169220303407552e-03
9.435707457228674766e-01 7.911291876300812209e-01 -1.109433316466473141e+00
1.099581431937783904e+00 -5.474712114089050896e-01 -6.446886042101678260e-01
-1.431987359190774134e+00 -1.996038488967633862e-01 -8.234121448574059920e-01
-5.407112326459176943e-01 -4.984918307965013340e-01 -3.653804567268235659e-01
-5.724426883348643358e-01 -9.269779375440463376e-01 -1.098032714398427201e+00
6.271433606212106771e-01 -7.103819106983629839e-01 1.659027721606932904e+00
-2.237017848134915887e+00 -1.280916967586119615e+00 1.929382614161810339e-01
8.372398990022749121e-01 -2.011728885630677421e+00 -4.024219275062403955e-01
4.710840512358362431e-01 6.098241203326348892e-01 4.479209340010008034e-01
-1.226643965687652660e-01 -1.954786189186684120e-01 4.586201531119150632e-01
1.170084039599980974e+00 -7.539939217807981597e-01 -4.020716491930434455e-01
-1.304382695151026894e+00 -1.476004700570747175e-01 9.210387592220038444e-01
7.992987788482072697e-02 1.047705165097642777e+00 9.748596519731043131e-01
-6.136118282251535883e-01 1.743986474505737627e+00 8.976245711717256714e-01
1.348701596482724252e+00 4.102346205196621409e-01 -1.660200837377977801e-01
1.114729560606942282e+00 -5.841222239549252043e-02 -1.604073414045590118e+00
-2.022548401446075061e+00 1.187035093734634783e+00 -4.574945818791303909e-01
1.175457976272635263e-01 1.670510360266391769e-01 -1.710785143983909906e+00
7.541773547628439767e-01 1.582262063841097799e-01 -1.637145580714644000e-01
1.739194172411951733e+00 8.859383344946744621e-02 4.083738953062011623e-01
2.602973924748664403e-01 6.280828140108746238e-01 -2.488256096287862484e-01
6.142902970519459327e-01 -7.966980184247117736e-01 4.563445319764642405e-01
-6.120260475495662433e-01 4.968811753711008250e-01 -5.446523649657697419e-01
7.414143459132541136e-02 1.922070898577202147e+00 1.224697820776590396e+00
-2.850827874252931382e-01 1.817171251527522347e-01 1.131298398739724598e-01
9.889771855704729830e-01 -6.416727419124172993e-01 -2.211832315668262883e+00
6.294846699340579388e-01 7.470794166203481579e-01 -1.755071316701496964e-01
1.109911560834312860e+00 -8.553318002320190461e-01 1.234035827775187694e-01
1.669083095742267958e-02 -6.420542352468683323e-01 -2.613234220284452736e-01
6.682567787611372045e-01 1.891807862883009506e+00 1.395668606528220224e+00
1.201864079581891120e+00 -3.735811795036426790e-03 -1.047052092653634414e+00
1.253814782769282044e+00 5.643271933881464086e-01 -1.153396477077504034e-01
2.029460119528750717e+00 1.068400200363368337e-02 1.153890352565969989e-03
6.533040129731279566e-02 1.347613057627384536e-01 1.188025898504144529e+00
-4.578062589581340380e-01 -1.775991490093668246e-01 -1.319745896311140365e+00
5.785239809720866822e-01 -9.584491713536779089e-01 1.824555065928599729e-01
-1.020880603852754476e+00 -2.605452939344089502e-01 -2.608820468753814126e-01
-9.537623942031927537e-01 1.093402904043042856e+00 -4.857860711806022969e-01
-8.542978461365077214e-01 4.110574660496418287e-01 -3.945761946961507394e-01
-4.640920831785546596e-01 1.132900893800885100e+00 -1.118589901013530064e+00
2.517971411203798193e-01 3.104028830391759586e-01 -3.732246711370690861e-01
-2.278901083674240990e-02 -4.587580168171593864e-01 9.050430161346227631e-02
-6.060422071666542454e-01 -1.009890464625577522e+00 6.950479412250301081e-01
-8.702452502375581656e-01 -1.062426688595368152e+00 2.466754192239056565e+00
-1.916752571145956957e-02 -1.103498598572801193e+00 5.103542099781085417e-01
-2.045191651311976333e+00 2.860170287739293826e+00 -9.497835030903187259e-02
1.295340572820614877e+00 -1.595101543785546250e+00 5.378435743834953930e-01
-4.665957654125740817e-01 -2.748146381607409761e-01 -1.196210614677597706e+00
1.015877852020226735e+00 1.570993064725038609e-03 -5.106895199601459989e-01
2.101862569426996563e-01 -7.446320676603541688e-01 -8.930923820233376276e-01
-1.810609590694316040e+00 3.243239302148114844e-01 -2.313588758572120430e-01
-1.557509829818243041e+00 2.576965310389596753e-01 -7.397305718728716117e-01
3.025928600277019154e-01 1.840233126462236801e-01 7.473237836367057074e-01
-3.295176853112870563e-01 5.483737189057266148e-01 9.926057569189993268e-01
2.333082933436643192e-01 -1.921133842590976082e+00 1.541071039512101060e-01
-2.516314842871972823e-01 -1.201736506909943936e+00 3.066523698542600318e-01
-3.037431946591906406e-01 -1.182134007864638958e+00 1.842544003468840619e-01
5.285120510971255126e-01 -8.169984057021982826e-01 1.183760866732797012e+00
-6.228172124595913184e-01 -1.865732802671134616e+00 7.717161004594160767e-01
-1.023624993142666223e-01 -4.725175991110984741e-01 -5.623629299004959670e-01
-6.464450964093858554e-01 5.961387566899535584e-02 -1.275632706910075242e+00
-7.075769403976949201e-01 -1.725494847364428930e+00 -1.585500346665297489e+00
8.475513218548297312e-02 -5.306643507127172255e-01 -8.992619078100552166e-01
-2.214529513096152424e+00 -6.734298044104742864e-01 -1.105664281008067906e+00
9.460803445175468562e-01 -3.600185012153815367e-01 -6.151495153623808276e-01
1.218516267449020862e+00 -1.973306781736001714e-01 1.555543546675959010e-01
3.409927947563201611e-01 9.060026506407603542e-01 -5.582066162502121731e-01
8.898533636585722606e-01 -9.899242214994562472e-01 3.060900080495604914e-01
6.119211868252171227e-01 3.873742817755614354e-01 1.609740953855326673e+00
-2.041006237597939033e-01 4.925911897722066723e-01 5.064531968655239247e-01
1.720977686542981833e-01 -4.685288366799660875e-01 5.213669437440849874e-01
-4.145551227362471725e-01 -6.427695008451150827e-01 -7.635251958476630962e-01
2.987844066198507287e-01 -4.813049484287461044e-01 3.641763442795348249e-01
